ply
format ascii 1.0
element vertex 308
property float x
property float y
property float z
end_header
-15.555533409118652 -6.775745391845703 23.32126808166504
-15.66169261932373 -5.553949356079102 23.4866943359375
-14.845949172973633 -4.85462760925293 22.57637596130371
-14.845949172973633 -4.85462760925293 22.57637596130371
-15.464651107788086 -6.796677589416504 23.559141159057617
-15.694657325744629 -5.606984615325928 24.08628273010254
-15.577630043029785 -6.117184162139893 23.939579010009766
-15.308130264282227 -5.143157482147217 23.621980667114258
-15.525760650634766 -5.56304407119751 24.050289154052734
-15.054777145385742 -6.7533183097839355 23.382320404052734
-14.668383598327637 -5.556598663330078 23.0344181060791
-14.560746192932129 -6.263479709625244 22.8780460357666
-15.004130363464355 -5.393867015838623 23.594192504882812
-14.609582901000977 -4.828300476074219 23.20207977294922
-14.431502342224121 -5.100892066955566 22.942102432250977
-14.975048065185547 -5.586806297302246 23.83608055114746
-14.843963623046875 -5.995070934295654 23.712318420410156
-14.648025512695312 -5.403467655181885 23.53902816772461
-15.027141571044922 -5.237579822540283 24.21759033203125
-14.488770484924316 -5.287631034851074 23.602672576904297
-14.568985939025879 -6.140665531158447 23.826669692993164
-14.666810989379883 -5.521583557128906 24.130863189697266
-13.32618236541748 -3.3491249084472656 22.349924087524414
-14.029380798339844 -5.026962757110596 23.69104766845703
-12.934724807739258 -3.2415497303009033 22.021913528442383
-12.934724807739258 -3.2415497303009033 22.021913528442383
-12.795544624328613 -3.9729301929473877 21.92107391357422
-12.795544624328613 -3.9729301929473877 21.92107391357422
-12.63712215423584 -3.308946371078491 21.855112075805664
-14.062356948852539 -2.5476791858673096 24.645021438598633
-12.174214363098145 -4.1178436279296875 21.52307891845703
-12.189579010009766 -3.3960013389587402 21.964038848876953
-12.139181137084961 -3.4612724781036377 22.123868942260742
-1.2930982112884521 0.6832912564277649 3.1434860229492188
-1.2949161529541016 0.663237452507019 3.1488094329833984
-4.258674144744873 -1.192671537399292 13.08880615234375
-4.094892501831055 0.009364559315145016 12.652981758117676
-2.2911267280578613 1.3976339101791382 7.242164134979248
-2.2911267280578613 1.3976339101791382 7.242164134979248
-4.55904483795166 -3.5794332027435303 14.830305099487305
-3.6805648803710938 -0.7690693736076355 12.2704496383667
-3.797672748565674 -2.068946361541748 12.89330768585205
-3.7116994857788086 -1.7812917232513428 12.7567777633667
-3.57956862449646 -1.3314327001571655 12.446553230285645
-3.520966053009033 -1.058158278465271 12.24550724029541
-3.520966053009033 -1.058158278465271 12.24550724029541
-3.428405284881592 -0.8342491388320923 11.969532012939453
-3.584228515625 -1.68988835811615 12.559696197509766
-3.2493691444396973 1.0246925354003906 11.385554313659668
-3.5490221977233887 -1.530566692352295 12.578264236450195
-3.407788038253784 -1.0723459720611572 12.13171672821045
-3.8504230976104736 -3.108266830444336 13.859045028686523
-3.832566022872925 -3.745394468307495 13.924856185913086
-3.2712295055389404 -0.819104790687561 11.902933120727539
-3.1475775241851807 0.45556265115737915 11.469467163085938
-3.1475775241851807 0.45556265115737915 11.469467163085938
-3.146364688873291 0.4565451145172119 11.465827941894531
-3.197333574295044 -0.9541460871696472 11.866462707519531
-3.2034900188446045 -1.8679531812667847 12.152740478515625
-3.07627010345459 -0.9091494679450989 11.739021301269531
-3.0210232734680176 -0.6535375714302063 11.584402084350586
-3.5803420543670654 -3.897188186645508 13.959312438964844
-2.9019699096679688 -2.4110965728759766 11.935176849365234
-2.5953445434570312 0.8364750146865845 10.750252723693848
-2.646225929260254 0.17703688144683838 10.966004371643066
-2.646225929260254 0.17703688144683838 10.966004371643066
-2.7449285984039307 -0.8884474039077759 11.383790969848633
-2.7631237506866455 -1.3391566276550293 11.516145706176758
-2.60495662689209 0.3637586832046509 10.898735046386719
-2.7593517303466797 -2.1372594833374023 11.700835227966309
-2.66300106048584 -1.243387222290039 11.374451637268066
-2.66300106048584 -1.243387222290039 11.374451637268066
-2.752335786819458 -2.417600393295288 11.799391746520996
-2.6626272201538086 -2.212411403656006 11.623059272766113
-2.583561897277832 -1.4713841676712036 11.408634185791016
-2.365251064300537 0.10057885199785233 10.696858406066895
-2.45731782913208 -1.2253360748291016 11.140734672546387
-2.520836114883423 -2.1790566444396973 11.453126907348633
-2.390162229537964 -0.9958000779151917 10.992081642150879
-2.403735637664795 -1.4456042051315308 11.135086059570312
-2.292829990386963 -0.12951964139938354 10.652719497680664
-2.2398812770843506 0.2628232538700104 10.466353416442871
-2.2983946800231934 -0.8484724760055542 10.868027687072754
-2.2983946800231934 -0.8484724760055542 10.868027687072754
-2.3808023929595947 -2.2338201999664307 11.26561164855957
-2.2929365634918213 -1.1984230279922485 10.910901069641113
-2.18668532371521 -0.27684372663497925 10.545361518859863
-2.1808362007141113 -0.6481360793113708 10.676639556884766
-2.1787335872650146 -1.0756977796554565 10.79184341430664
-2.0662548542022705 0.26328444480895996 10.319239616394043
-2.0375194549560547 0.12844617664813995 10.249383926391602
-2.2042016983032227 -2.5785274505615234 11.19464111328125
-2.0026156902313232 -0.19449207186698914 10.311798095703125
-2.148106575012207 -2.3226287364959717 11.124558448791504
-2.017956018447876 -1.1096227169036865 10.605862617492676
-2.021347999572754 -1.0455608367919922 10.650420188903809
-2.0800249576568604 -2.4170029163360596 11.003585815429688
-1.841223955154419 -1.0276514291763306 10.310784339904785
-1.8332195281982422 -2.48061466217041 10.697334289550781
-1.7519696950912476 -0.9493856430053711 10.293179512023926
-1.6478101015090942 0.7460888028144836 9.702181816101074
-1.7262768745422363 -1.0271321535110474 10.175675392150879
-1.728102445602417 -1.4477829933166504 10.331385612487793
-1.6513359546661377 -1.5330723524093628 10.272536277770996
-1.521388053894043 0.17167432606220245 9.750438690185547
-1.6276228427886963 -2.191101312637329 10.499085426330566
-1.6068933010101318 -1.7169402837753296 10.362678527832031
-1.543929934501648 -1.4938064813613892 10.155402183532715
-1.4953340291976929 -2.1404104232788086 10.39669132232666
-1.4315762519836426 -1.339425802230835 9.979033470153809
-1.0032329559326172 1.4615148305892944 7.108837604522705
-0.9755859971046448 1.652380108833313 7.091555595397949
-1.375541090965271 -1.3889050483703613 10.05984878540039
-1.375541090965271 -1.3889050483703613 10.05984878540039
-1.3386766910552979 -1.3602606058120728 9.91184139251709
-1.3074196577072144 -2.4067435264587402 10.117240905761719
-1.264115333557129 -1.2976547479629517 9.823885917663574
-1.18351411819458 -0.5439114570617676 9.623115539550781
-1.2136658430099487 -1.7214953899383545 9.871460914611816
-1.195258378982544 -1.4166724681854248 9.727374076843262
-1.1705741882324219 -1.1489379405975342 9.591753959655762
-1.1559957265853882 -1.3227308988571167 9.629587173461914
-1.1649796962738037 -1.9040113687515259 9.805792808532715
-1.0939074754714966 -1.1049165725708008 9.599581718444824
-1.0270792245864868 0.6431668996810913 9.13495922088623
-1.0270792245864868 0.6431668996810913 9.13495922088623
-1.063002347946167 -2.2767674922943115 9.866567611694336
-1.063002347946167 -2.2767674922943115 9.866567611694336
-0.9670557379722595 0.5186994075775146 9.00793743133545
-0.9670557379722595 0.5186994075775146 9.00793743133545
-0.6989697813987732 1.5343083143234253 6.528366565704346
-0.9699221849441528 0.34841272234916687 9.148099899291992
-0.9693427681922913 0.07391182333230972 9.146835327148438
-1.0062440633773804 -2.8302268981933594 9.89303207397461
-0.9413019418716431 -1.0129297971725464 9.360532760620117
-0.9898793697357178 -2.294445276260376 9.90849494934082
-0.9347034096717834 -1.1948763132095337 9.352527618408203
-0.8589842319488525 0.35040539503097534 8.918755531311035
-0.8812668323516846 -1.0622799396514893 9.305680274963379
-0.9382069706916809 -2.2438318729400635 9.966756820678711
-0.9197742938995361 -2.7021327018737793 9.783196449279785
-0.9197742938995361 -2.7021327018737793 9.783196449279785
-0.9076924920082092 -2.1948301792144775 9.792155265808105
-0.8510745167732239 -1.5654524564743042 9.390796661376953
-0.7580905556678772 1.1459367275238037 8.592704772949219
-0.802442193031311 -1.4402647018432617 9.317765235900879
-0.7495388388633728 -0.9498464465141296 9.114562034606934
-0.7314671277999878 -1.9892964363098145 9.348133087158203
-0.7432548999786377 -2.4235892295837402 9.481424331665039
-0.7297031879425049 -2.3200631141662598 9.449149131774902
-0.688103199005127 -1.047075629234314 9.095001220703125
-0.698693037033081 -1.8644033670425415 9.347224235534668
-0.6741445064544678 -1.3880659341812134 9.188602447509766
-0.6892955303192139 -2.2634899616241455 9.43173885345459
-0.6316450834274292 1.2064162492752075 8.814908981323242
-0.6746397614479065 -2.6259238719940186 9.523832321166992
-0.47792288661003113 0.9298298954963684 8.88791561126709
-0.4241997301578522 0.9685235619544983 8.781489372253418
-0.4241997301578522 0.9685235619544983 8.781489372253418
-0.4241997301578522 0.9685235619544983 8.781489372253418
-0.4241997301578522 0.9685235619544983 8.781489372253418
-0.1757245808839798 1.4189839363098145 6.093637466430664
-0.23350650072097778 -2.3118786811828613 9.379709243774414
-0.16684885323047638 -4.111514091491699 12.068880081176758
-0.0634387657046318 1.5499593019485474 6.736117839813232
-0.057744573801755905 -1.184688687324524 9.86991024017334
-0.031260497868061066 -2.0217912197113037 10.061627388000488
0.033063944429159164 -4.126396656036377 11.959911346435547
0.03685014694929123 -2.1921041011810303 10.236238479614258
0.13678224384784698 1.9071911573410034 11.068692207336426
0.10790197551250458 1.2638500928878784 5.481577396392822
0.26821663975715637 -2.137162685394287 10.421822547912598
0.31489601731300354 -3.1254348754882812 11.443358421325684
0.28199297189712524 -1.048956274986267 10.06836986541748
0.18078821897506714 1.378770351409912 5.474299430847168
0.39509445428848267 -3.0409798622131348 11.607651710510254
0.356875479221344 -2.097412586212158 10.396798133850098
0.25366026163101196 1.2792104482650757 5.649247169494629
0.25366026163101196 1.2792104482650757 5.649247169494629
0.25535011291503906 1.1801048517227173 5.670210838317871
0.2949853837490082 1.2833760976791382 5.662888050079346
0.6811691522598267 -2.8529398441314697 10.688121795654297
0.7489588856697083 -3.4335317611694336 11.406004905700684
0.2385946661233902 1.146133303642273 3.4386706352233887
0.870578408241272 -2.7083208560943604 11.1674165725708
0.2642378509044647 1.0951138734817505 3.3023715019226074
0.5264681577682495 1.4244318008422852 6.398149013519287
1.1885944604873657 -2.5041472911834717 11.905564308166504
0.5691410899162292 1.1974180936813354 4.937169551849365
1.292617678642273 -2.7737960815429688 10.874444007873535
0.6255671977996826 1.302333950996399 5.020381927490234
0.6947594881057739 1.352445125579834 5.126981258392334
0.7357571721076965 1.3258856534957886 5.159666061401367
0.7820000052452087 1.3764641284942627 5.27297306060791
1.9275617599487305 -4.20836067199707 10.912520408630371
0.7937952280044556 1.271120548248291 4.439469337463379
1.1675366163253784 1.6050598621368408 6.469085693359375
1.8961576223373413 -0.9708751440048218 10.053893089294434
1.8961576223373413 -0.9708751440048218 10.053893089294434
2.0210118293762207 -3.732630968093872 9.689964294433594
2.003960371017456 -3.682487726211548 9.581300735473633
2.132388114929199 -0.9198815822601318 10.091094970703125
2.1354048252105713 -1.0249743461608887 10.09433364868164
2.261418581008911 -3.517847776412964 10.708375930786133
2.121403932571411 -0.22773393988609314 9.936386108398438
0.9288142323493958 1.260388731956482 4.334306716918945
2.265453815460205 -2.4397377967834473 10.403387069702148
2.1770708560943604 -0.17171742022037506 9.981071472167969
2.1770708560943604 -0.17171742022037506 9.981071472167969
2.2435410022735596 -0.990719735622406 10.112284660339355
2.4077718257904053 -3.314683198928833 10.800397872924805
2.2297983169555664 -0.20221395790576935 9.972902297973633
2.216428756713867 -0.11193801462650299 9.905261993408203
2.329936981201172 -1.4214671850204468 10.237935066223145
2.3731980323791504 -0.7908800840377808 10.365811347961426
2.4600632190704346 -2.4415576457977295 10.730764389038086
2.5524423122406006 -2.6845703125 11.078704833984375
2.465240716934204 -2.179879903793335 10.689892768859863
2.570612668991089 -4.142828464508057 11.14553165435791
2.4363529682159424 -1.2621477842330933 10.452739715576172
2.4254183769226074 -0.9708435535430908 10.368209838867188
2.4213345050811768 -0.17360542714595795 10.274271011352539
2.6275100708007812 -2.0991287231445312 10.754810333251953
2.6687111854553223 -2.669274091720581 10.926979064941406
2.534766674041748 -0.8768237233161926 10.331300735473633
2.6370506286621094 -1.2067631483078003 10.676554679870605
2.588479518890381 -0.9356792569160461 10.466211318969727
2.606445550918579 -0.498214453458786 10.470122337341309
2.6751692295074463 -1.3225839138031006 10.70357608795166
2.6525301933288574 -0.6492871642112732 10.537273406982422
2.7334351539611816 -1.2548425197601318 10.735323905944824
2.7334351539611816 -1.2548425197601318 10.735323905944824
2.8020713329315186 -2.471435070037842 10.92772102355957
1.147867202758789 1.3601036071777344 4.447554111480713
2.7280893325805664 -0.07125066220760345 10.552574157714844
2.7983288764953613 -1.2858563661575317 10.748673439025879
2.878697156906128 -2.389664888381958 11.010642051696777
2.8446946144104004 -0.8354000449180603 10.71233081817627
2.8100099563598633 0.33113911747932434 10.443812370300293
2.8100099563598633 0.33113911747932434 10.443812370300293
2.822852373123169 1.132792353630066 10.401524543762207
1.2392371892929077 1.315032958984375 4.371784687042236
3.1846060752868652 1.1064549684524536 10.136582374572754
1.4308172464370728 1.1964589357376099 4.47271728515625
3.5528581142425537 -3.051013708114624 11.102291107177734
3.4652254581451416 -0.8598102927207947 10.782293319702148
3.527888774871826 -2.72172212600708 10.959845542907715
3.341686487197876 1.3314921855926514 10.218595504760742
1.470080852508545 1.1391512155532837 4.384761333465576
1.4532712697982788 1.181358814239502 4.3315606117248535
3.9438371658325195 -3.0421831607818604 11.572935104370117
1.4896830320358276 1.1295032501220703 4.325559616088867
1.4939500093460083 1.1815451383590698 4.286791801452637
1.4939500093460083 1.1815451383590698 4.286791801452637
1.4939500093460083 1.1815451383590698 4.286791801452637
3.8842806816101074 -0.7954578995704651 11.079231262207031
1.5182443857192993 1.1288363933563232 4.3207926750183105
3.888653516769409 -0.15902216732501984 11.007650375366211
1.5450267791748047 1.1278921365737915 4.3061113357543945
1.5324608087539673 1.1652376651763916 4.240236759185791
1.57949697971344 1.1162039041519165 4.267523765563965
4.445365905761719 1.759226679801941 11.340901374816895
4.8440117835998535 -2.2321982383728027 12.24388313293457
4.916772842407227 -2.349782943725586 12.364425659179688
4.929364204406738 -0.45552459359169006 12.13278865814209
4.894732475280762 0.0015512914396822453 11.981514930725098
5.17146110534668 -1.7618441581726074 12.407832145690918
5.17146110534668 -1.7618441581726074 12.407832145690918
5.212740421295166 -1.5538580417633057 12.50736141204834
5.3909525871276855 -2.564764976501465 12.825447082519531
5.386843204498291 -2.385814666748047 12.788086891174316
5.300947189331055 -1.6137655973434448 12.545069694519043
1.8366191387176514 1.2169928550720215 4.281541347503662
5.530888557434082 -2.222548246383667 12.902965545654297
5.364614009857178 -1.5465525388717651 12.4562406539917
5.502659320831299 -0.5844011306762695 12.592309951782227
5.513738632202148 -0.35163891315460205 12.590978622436523
5.736360549926758 -1.5410398244857788 13.031094551086426
5.635823726654053 -0.38496920466423035 12.706890106201172
5.615279197692871 0.2656465470790863 12.615869522094727
5.817442417144775 -1.6393351554870605 13.055980682373047
1.921919584274292 1.263648509979248 4.296036243438721
5.783895492553711 -0.9927413463592529 12.893378257751465
2.0738368034362793 1.2632609605789185 4.604010105133057
5.976216793060303 -2.1329469680786133 13.271256446838379
6.204695224761963 -2.5905535221099854 13.666463851928711
5.875325679779053 0.402286171913147 12.886465072631836
3.4393105506896973 -0.8449497222900391 7.505310535430908
6.864276885986328 -1.9342623949050903 14.969427108764648
5.821059703826904 1.472038745880127 12.670060157775879
6.157160758972168 -0.5195744633674622 13.247809410095215
6.157160758972168 -0.5195744633674622 13.247809410095215
6.198706150054932 -0.2483830451965332 13.301360130310059
6.193337440490723 0.24393858015537262 13.212810516357422
6.193337440490723 0.24393858015537262 13.212810516357422
6.501425743103027 -1.371209979057312 13.749726295471191
6.462284088134766 -0.2420223504304886 13.497194290161133
2.288140058517456 1.0855764150619507 4.76283073425293
2.372243881225586 1.0749670267105103 4.82870626449585
2.329287052154541 1.289481282234192 4.7276506423950195
2.442840576171875 1.1846697330474854 4.93998908996582
2.3841066360473633 1.3074933290481567 4.769284248352051
2.3841066360473633 1.3074933290481567 4.769284248352051
2.446838140487671 1.3408161401748657 4.804047107696533
2.6726608276367188 1.2553019523620605 5.172907829284668
2.6940159797668457 1.2628934383392334 5.164306163787842
3.112917423248291 1.2358853816986084 5.394233226776123
2.3183577060699463 0.7859479784965515 3.2495152950286865
