ply
format ascii 1.0
element vertex 129
property float x
property float y
property float z
end_header
-30.510845 -13.469023 46.405848
-28.185199 -10.179344 43.640162
-28.362536 -12.805012 44.031649
-26.800932 -10.222235 41.970755
-29.034611 -10.504094 45.602248
-26.980062 -8.978284 42.759544
-26.940192 -9.980887 43.217448
-29.699607 -10.723544 47.772714
-29.699607 -10.723544 47.772714
-25.168801 -9.604288 40.619064
-25.407095 -9.306644 41.376702
-27.375153 -10.386705 45.000339
-22.223263 -5.631048 37.827401
-21.232784 -6.653059 36.354602
-21.232784 -6.653059 36.354602
-20.982648 -7.154563 37.013137
-19.651575 -5.592417 35.016531
-19.703676 -5.172856 35.343674
-20.937205 -5.880125 37.687637
-11.169005 -7.397075 32.397853
-4.615102 -2.230094 15.810714
-4.061409 -1.289260 14.460147
-3.940737 -0.996129 14.328624
-3.652847 -1.094640 13.946380
-3.466542 -1.646549 14.035217
-3.171646 0.188670 13.038923
-3.029627 0.417954 12.652349
-2.972872 -0.229840 13.029608
-2.864865 -1.198189 13.102637
-2.637211 0.296362 12.264009
-2.795522 -1.040970 13.114386
-2.795522 -1.040970 13.114386
-2.689084 -1.408910 12.742336
-2.454865 0.307295 12.167072
-2.371402 0.137856 11.868141
-2.574655 -2.782962 13.261237
-2.604103 -1.083111 13.970020
-2.019934 -1.706807 12.031688
-1.950820 -1.246638 11.895836
-1.744554 0.187725 11.132934
-1.710164 -2.186093 11.936998
-1.534132 -1.558544 11.289639
-1.364118 1.661466 10.035782
-1.464770 -1.489189 11.246739
-1.394258 -1.636575 11.203411
-1.317802 -1.510932 10.915750
-1.218417 -1.460372 10.921055
-1.074889 0.560928 9.997594
-0.939984 0.372053 9.762187
-1.058285 -3.089501 11.171018
-1.058285 -3.089501 11.171018
-1.081406 -2.582538 11.471970
-0.839284 -1.062791 10.117418
-0.837310 -2.258121 10.565938
-0.852538 -2.748903 10.724894
-0.776732 -1.186975 10.224016
-0.756171 -1.562734 10.235389
-0.769445 -1.760027 10.447245
-0.793114 -3.048233 11.010737
-0.550489 1.036678 10.007836
-0.480349 1.062064 9.734073
-0.480349 1.062064 9.734073
-0.284710 -2.644300 10.629838
-0.068699 1.608657 7.026667
-0.115355 -4.104888 14.613475
-0.008014 -3.937341 14.134696
0.160280 -2.388152 12.662608
0.294768 -2.499226 12.122107
0.405225 -2.434037 12.034352
1.033193 -3.271473 13.449106
1.482180 -3.214183 12.533846
0.663348 1.364917 5.120360
0.663348 1.364917 5.120360
0.739820 1.338745 5.254480
2.464401 -1.792684 15.313119
1.306258 1.953380 7.893701
1.214800 1.678820 6.801917
2.554404 -5.028387 12.984895
2.520494 -4.893503 12.453667
2.664664 -4.915396 12.684987
2.621288 -4.106829 12.445325
2.507347 -0.202334 11.498270
2.724363 -1.695126 12.061564
2.825689 -1.150327 12.116741
3.237039 -4.562045 13.500411
3.099537 -2.490476 12.676401
3.148464 -3.177515 12.906609
2.991260 -1.048708 12.230553
3.149392 -3.277574 12.796875
3.213307 -1.620992 12.936810
3.279865 -1.536529 12.926931
3.572919 -4.652529 13.884080
3.332614 -1.549560 12.852259
3.393132 -1.017091 12.801137
3.286404 0.385155 12.223538
3.286404 0.385155 12.223538
3.717997 1.296272 11.841196
1.380494 1.146191 4.320292
3.998123 1.599835 12.290109
5.132422 -4.789381 15.452874
4.088621 0.151107 11.977983
4.832170 -0.209365 13.742977
4.775978 -0.081876 13.508217
1.492197 1.085839 4.177091
1.461571 1.105287 4.049192
6.857487 -3.049160 17.199073
6.730312 -0.694613 16.328673
7.225127 -3.389452 16.907178
7.583174 -2.228536 17.603190
7.587725 -0.834055 17.379362
7.587725 -0.834055 17.379362
8.679876 -3.150100 19.277626
11.652672 -3.397461 25.451259
8.895760 -0.779617 19.132726
8.895760 -0.779617 19.132726
9.806600 0.360598 20.944764
11.145793 -0.452343 23.323892
2.220412 1.289648 4.522184
2.266063 1.235792 4.545686
2.266063 1.235792 4.545686
2.326571 1.272297 4.580036
3.483773 1.559233 5.762115
3.653572 1.457728 6.006367
3.653572 1.457728 6.006367
2.419968 -0.026348 3.382446
4.338338 -0.409109 6.195992
5.956009 -1.245012 8.539587
3.973176 2.726102 5.730005
3.973176 2.726102 5.730005
